# .PCD v0.7 - Point Cloud Data file format
VERSION 0.7
FIELDS x y z
SIZE 4 4 4
TYPE F F F
COUNT 1 1 1
WIDTH 1517
HEIGHT 1
VIEWPOINT 0 0 0 1 0 0 0
POINTS 1517
DATA ascii
-41.53112 -9.1143112 1.2205676
-41.294537 -9.1015682 1.3565574
-40.629971 -9.1167479 1.2024775
-40.169201 -9.1184788 1.2649781
-39.118954 -9.0890913 1.3407277
-37.44426 -9.130209 1.3681113
-37.265629 -9.0896606 1.3798537
-36.752022 -9.1984053 1.3477907
-36.564785 -9.1102619 1.3287024
-36.357529 -9.0795727 1.3421825
-36.070667 -9.1965618 1.2843169
-26.611418 -9.0176392 1.3648258
-25.523132 -9.1118364 1.2907207
-23.208332 -9.0406399 1.3222785
-23.156471 -9.1026039 1.2411137
-20.208643 -9.1863022 1.3637135
-19.643192 -9.0591574 1.3677913
-18.726624 -9.0749588 1.2134831
-13.914692 -9.1690845 1.3313991
-13.674625 -9.1274872 1.2667692
-11.61276 -9.011137 1.3610386
-11.557644 -9.0192509 1.3550436
-10.703348 -9.0717831 1.3093737
-10.479639 -9.0750408 1.2866576
-10.028319 -9.0473652 1.2531534
-9.9507303 -9.1384907 1.2530715
-4.2043934 -9.1384497 1.3480475
-4.0437732 -9.1721516 1.3270291
-3.9434614 -9.0733461 1.3009582
-3.7246375 -9.0456867 1.2920151
-3.5238361 -9.0609684 1.2800963
-3.1587253 -9.0775223 1.3617055
-2.9178116 -9.1020737 1.3754644
3.5037231 -9.0628548 1.2799277
3.6702864 -9.1716518 1.2246748
7.576787 -9.1371546 1.2580413
7.770256 -9.0995989 1.3108649
7.8550653 -9.1448288 1.3601652
-42.11726 -8.8551064 1.3772842
-41.472363 -8.8306274 1.3311962
-40.904816 -8.9340935 1.3522843
-40.640091 -8.9184895 1.3570093
-40.336189 -8.8984165 1.2856383
-40.00061 -8.8897495 1.2462608
-39.23838 -8.8150349 1.3682055
-37.435085 -8.8878384 1.3745427
-37.286522 -8.9551516 1.3602791
-37.174149 -8.9086885 1.3072233
-36.647221 -8.8589334 1.237069
-26.648764 -8.8515949 1.312363
-25.418314 -8.8068514 1.2544918
-25.329037 -8.8759317 1.201416
-23.1742 -8.9839602 1.2428389
-21.23514 -8.8429375 1.2046525
-20.278997 -8.8609352 1.3064661
-19.845404 -8.8859577 1.2709911
-19.710789 -8.8510952 1.3417158
-18.931282 -8.843832 1.2412176
-18.705299 -8.8007393 1.3252683
-14.241016 -8.847949 1.349225
-14.142089 -8.8388557 1.3129662
-13.852397 -8.9326735 1.3191705
-13.794393 -8.9443512 1.3663498
-10.628147 -8.8745766 1.27258
-10.263873 -8.8656187 1.3222525
-10.063942 -8.9737492 1.2514269
-9.7547722 -8.8605595 1.2670016
-3.855444 -8.9643469 1.2681295
-3.7071145 -8.9145231 1.275978
-3.4843652 -8.9170399 1.2683014
-3.3542085 -8.8464336 1.3019801
-3.1266232 -8.8235893 1.2215708
-2.8735533 -8.8559093 1.3823149
-2.7457819 -8.824894 1.3124831
-2.5790133 -8.9306726 1.3879832
-2.3845406 -8.8223877 1.315688
3.36251 -8.818676 1.3138323
3.451623 -8.9735527 1.3384032
5.330286 -8.8568478 1.2582818
7.3841705 -8.8152447 1.2320175
7.5393076 -8.9211407 1.2707864
7.6584582 -8.944479 1.3203057
-40.851006 -8.6859303 1.3475232
-40.418858 -8.6011419 1.3149271
-37.055573 -8.7342186 1.2697754
-36.727074 -8.6726542 1.2717171
-36.412739 -8.7877741 1.2539135
-35.869244 -8.6750412 1.3060023
-35.633949 -8.6870975 1.3517303
-32.202923 -8.6056185 1.2494539
-32.181164 -8.6903343 1.2505128
-27.644331 -8.6723537 1.2649156
-25.649149 -8.6646423 1.2114314
-25.466698 -8.6957378 1.2229459
-21.33885 -8.7233686 1.2147199
-21.151712 -8.6946993 1.2544156
-20.353443 -8.7596302 1.3479494
-20.061539 -8.7062683 1.3301502
-19.925455 -8.7395039 1.3331771
-19.106846 -8.6066027 1.2005606
-18.893854 -8.7106552 1.2862775
-18.665558 -8.6982574 1.3249527
-18.494762 -8.7559586 1.3381805
-14.244777 -8.6787767 1.3399054
-14.106725 -8.7533655 1.3442479
-11.046743 -8.7292538 1.2896895
-10.906612 -8.6877651 1.2647583
-10.664895 -8.7283621 1.2932037
-10.224243 -8.7526646 1.2922028
-10.1359 -8.7782631 1.2515616
-3.629818 -8.7857294 1.3850448
-3.250165 -8.7242851 1.3033175
-3.1263289 -8.6868048 1.2990257
-2.873878 -8.6840687 1.2592967
-2.6976318 -8.6879654 1.3809097
-2.4661026 -8.659894 1.3244458
-2.3523738 -8.7345428 1.3325415
3.2833912 -8.7181988 1.3212571
5.5027103 -8.7724104 1.2636161
5.7025576 -8.6692276 1.2696884
7.4514189 -8.629138 1.301362
7.6240034 -8.7976189 1.3225319
-41.953743 -8.470089 1.2334269
-41.468563 -8.4475918 1.2094367
-40.732178 -8.5026464 1.2932029
-40.276463 -8.4975681 1.2986405
-40.086063 -8.4696026 1.2736776
-37.414139 -8.4958363 1.3866832
-36.848289 -8.5485783 1.2900422
-36.666294 -8.4514465 1.2636825
-36.554321 -8.5061483 1.2739404
-36.391148 -8.5751038 1.2507235
-35.884712 -8.5850372 1.3879812
-35.669975 -8.5288105 1.3617725
-35.591366 -8.4270391 1.3511159
-27.991108 -8.4826126 1.2763062
-27.497629 -8.4063225 1.2516662
-26.02247 -8.4256248 1.2235017
-25.705963 -8.5167961 1.2056355
-25.462442 -8.4548378 1.2242494
-25.322943 -8.5035772 1.2361621
-24.625813 -8.5070953 1.2224979
-24.531929 -8.5108986 1.3744282
-24.280497 -8.4666405 1.3577688
-24.091787 -8.5147867 1.3634541
-22.99876 -8.4160004 1.311358
-22.774229 -8.4007988 1.2980391
-22.031904 -8.4043922 1.2265403
-21.96456 -8.4115505 1.253741
-21.741364 -8.4560013 1.2437787
-21.479029 -8.5033722 1.2319804
-21.245256 -8.5107727 1.3332326
-19.614262 -8.4636192 1.2315271
-19.254648 -8.5181999 1.2085682
-19.137169 -8.5751448 1.2814976
-18.651672 -8.4920082 1.3558956
-18.491707 -8.5314579 1.3601673
-18.36808 -8.5147629 1.3577685
-14.275644 -8.5429754 1.3359759
-11.20559 -8.4394035 1.2898121
-11.097048 -8.4673061 1.245037
-10.916641 -8.5096226 1.2684295
-10.707738 -8.5309153 1.3317322
-9.8714647 -8.5630207 1.3071694
-2.936193 -8.5201998 1.2957313
-2.7458205 -8.4818363 1.2710229
-2.5448194 -8.466733 1.2924786
-2.3177433 -8.4551344 1.3566065
-2.0614266 -8.5110188 1.3642642
3.1743593 -8.5240412 1.3420384
3.2075303 -8.5832071 1.3346022
5.8411608 -8.5917883 1.2737209
6.1030445 -8.5296021 1.2853737
6.3014116 -8.4542475 1.2930336
6.5293961 -8.4678097 1.3737679
6.7272701 -8.4238453 1.3838582
6.9839363 -8.4162769 1.3988522
7.3071489 -8.5502825 1.2844272
7.5029459 -8.5376568 1.3703657
-41.121758 -8.2243576 1.3835557
-40.896595 -8.3417416 1.2909338
-40.573517 -8.2696838 1.3456972
-36.817425 -8.2853727 1.2962272
-36.727894 -8.2503529 1.2746065
-35.43248 -8.2488737 1.37075
-32.34679 -8.2193069 1.2854562
-31.909641 -8.35285 1.3462943
-28.544706 -8.3001671 1.2976983
-27.964178 -8.24438 1.2289007
-27.696796 -8.2404556 1.2797636
-27.356262 -8.3404083 1.3838586
-26.11396 -8.2847242 1.2164333
-25.887762 -8.2885132 1.2493863
-25.645741 -8.2595835 1.2928271
-25.492271 -8.3102608 1.2891815
-25.367941 -8.3109255 1.2526672
-24.631495 -8.2074261 1.3953874
-24.4883 -8.2817631 1.2872984
-24.192095 -8.3423824 1.3759418
-23.103434 -8.3760128 1.3153431
-22.495728 -8.3771811 1.2662416
-22.235575 -8.3411264 1.2500217
-22.103645 -8.3287983 1.2421186
-21.462543 -8.2240715 1.3199855
-21.323338 -8.357605 1.3557625
-14.334089 -8.3474998 1.323377
-11.621749 -8.2192011 1.3076696
-11.528966 -8.2114239 1.3093479
-11.213575 -8.365778 1.2951735
-11.060934 -8.3123522 1.2546898
-10.890019 -8.275424 1.2455475
-10.683235 -8.2836761 1.3203149
-10.351397 -8.3499832 1.247017
-2.6601219 -8.338295 1.3116571
-2.456702 -8.268013 1.2705377
-2.3033419 -8.219017 1.2675111
-2.143559 -8.3150692 1.3624814
-1.5303811 -8.2770042 1.339329
-1.3275999 -8.2716379 1.229834
2.9794259 -8.2479668 1.26266
3.0492578 -8.3545361 1.3592404
6.5122738 -8.349514 1.3002292
6.7590218 -8.2644119 1.3104687
6.9233894 -8.2404137 1.3552315
7.1889391 -8.2353439 1.3272328
7.2424402 -8.2932224 1.3359618
-41.954803 -8.1219196 1.3599609
-41.606926 -8.1529493 1.3353283
-41.133911 -8.0356007 1.3872845
-36.671379 -8.1640558 1.2718247
-36.54673 -8.1317873 1.2745794
-32.344685 -8.1856041 1.3375413
-27.752728 -8.1499357 1.2689607
-27.573948 -8.0333776 1.3313984
-26.040936 -8.0519199 1.2736378
-25.940027 -8.0893526 1.3193938
-25.684296 -8.0792141 1.3052914
-25.502024 -8.1581831 1.216638
-25.39328 -8.0801125 1.3989843
-24.691698 -8.0552158 1.3921759
-24.582005 -8.1499395 1.3619385
-24.320063 -8.1469564 1.3462925
-24.08074 -8.0993242 1.3395573
-23.052999 -8.0303688 1.3958747
-22.803598 -8.0361233 1.3766704
-22.481642 -8.034976 1.3127683
-22.261076 -8.059042 1.2231597
-22.03471 -8.0429621 1.3509486
-21.956123 -8.1103802 1.3711028
-21.690702 -8.1031971 1.3572454
-21.561808 -8.1421242 1.355422
-20.481867 -8.1093702 1.2831398
-11.814171 -8.0968075 1.3071091
-11.698595 -8.0284863 1.2975118
-11.555103 -8.1556282 1.2568673
-10.908379 -8.1923962 1.2870346
-10.72568 -8.1257896 1.2387488
-10.535857 -8.1842127 1.2771652
-10.2713 -8.0823002 1.2958946
-10.120209 -8.129323 1.3185666
-9.9993362 -8.1781759 1.3267806
-9.6392879 -8.0798111 1.363276
-9.5167084 -8.0976372 1.2941453
-9.2761135 -8.0410166 1.2057431
-2.3333535 -8.1263943 1.3322878
-2.0955589 -8.077034 1.272939
-1.9385118 -8.0277996 1.2937903
-1.6656653 -8.0683041 1.3201904
-1.547739 -8.0910387 1.3105992
-1.3330289 -8.1066656 1.3317279
-1.1271095 -8.1235437 1.3051143
-0.9770956 -8.0440845 1.3474195
2.7951591 -8.0162706 1.2667215
2.8941898 -8.1198006 1.3304846
6.8783045 -8.1048317 1.3438175
7.1054292 -8.090414 1.3627741
7.2202578 -8.126152 1.3265729
-41.835648 -7.9826341 1.3505621
-41.718178 -7.973619 1.3421195
-41.453552 -7.8810301 1.2100936
-40.908821 -7.9079504 1.3628273
-40.553223 -7.830061 1.358052
-36.755863 -7.985158 1.2878442
-36.281406 -7.9451933 1.2200239
-33.196991 -7.8381033 1.2782512
-32.672695 -7.9035749 1.3613672
-32.324856 -7.9023499 1.3432876
-32.195389 -7.9942865 1.3505133
-31.372887 -7.8252087 1.2362995
-28.103949 -7.8712273 1.2482241
-27.951542 -7.9963183 1.2867261
-27.375479 -7.8683324 1.3670665
-26.084219 -7.9329162 1.2607046
-25.936291 -7.8835173 1.2667409
-25.757469 -7.8558726 1.2541735
-25.467321 -7.8888679 1.3074998
-25.30648 -7.9512453 1.3020427
-25.182255 -7.9750171 1.2334886
-24.87672 -7.9566488 1.3187058
-24.708542 -7.9548578 1.2675798
-22.132593 -7.9667101 1.3592978
-21.719227 -7.915144 1.3924172
-13.95437 -7.8480015 1.3985848
-11.3008 -7.9179068 1.3060925
-10.960659 -7.9618082 1.2262881
-10.662132 -7.8977132 1.2497653
-10.414097 -7.8101397 1.3004718
-10.302503 -7.9547815 1.3232472
-10.126373 -7.8686428 1.2855178
-9.9130726 -7.8337188 1.359594
-9.6992073 -7.8768778 1.3576066
-9.5159407 -7.8843265 1.3249437
-9.3261633 -7.8859301 1.2692099
-2.0382884 -7.9367557 1.3016052
-1.8920834 -7.9247737 1.3091607
-1.6847425 -7.8938122 1.2765265
-1.5321264 -7.8510056 1.3099117
-1.2751077 -7.8377085 1.2743732
2.7672129 -7.8859935 1.3444724
2.8069687 -7.9726763 1.2552742
4.8768396 -7.8797951 1.222904
6.6676211 -7.8156953 1.3471767
6.9694796 -7.8414207 1.3522483
7.0512056 -7.9115248 1.3570864
-41.561798 -7.7205048 1.2175949
-40.434216 -7.7052884 1.3148559
-37.642883 -7.6757035 1.3912365
-37.320351 -7.6780982 1.3675958
-36.719788 -7.7647839 1.2802718
-36.482376 -7.7220125 1.2697543
-36.243824 -7.648644 1.3988354
-33.471527 -7.6132503 1.296517
-33.354652 -7.6157637 1.3052627
-32.896866 -7.6038284 1.2452996
-32.707508 -7.6048822 1.2275558
-32.449398 -7.7687564 1.2961322
-32.32859 -7.7575827 1.2201526
-32.15379 -7.6845222 1.2664973
-31.443258 -7.7795305 1.2417674
-28.27129 -7.7255354 1.2311541
-28.097912 -7.7373433 1.2884605
-27.50737 -7.7430506 1.328889
-26.063486 -7.7056689 1.2319038
-25.855162 -7.6801825 1.302695
-25.744108 -7.6583619 1.2491864
-25.341879 -7.7475648 1.213037
-25.071352 -7.6821723 1.3161693
-24.917204 -7.7217793 1.308562
-24.671049 -7.7536554 1.2780012
-24.545439 -7.7174234 1.3187633
-24.332108 -7.719924 1.3289968
-13.996159 -7.779542 1.3336598
-11.222731 -7.7845716 1.303877
-11.146791 -7.6539488 1.2931263
-10.982281 -7.6302328 1.3251932
-10.415523 -7.7193971 1.2706013
-10.045258 -7.7426462 1.3599606
-9.8547907 -7.6306958 1.3395792
-9.7069187 -7.7055359 1.3202802
-9.5962677 -7.7933269 1.2660832
-9.2122707 -7.7331638 1.2702869
-9.0859919 -7.694602 1.3409162
-8.9545794 -7.6326919 1.3779308
-8.2095003 -7.6641188 1.3389721
-8.0940094 -7.6592493 1.2596719
-7.9245653 -7.6756477 1.2710953
-7.7963452 -7.7512636 1.3047618
-1.7254857 -7.720284 1.3354851
-1.5058057 -7.7626891 1.2866144
-1.3525758 -7.6498442 1.3390418
-0.88834012 -7.7490597 1.3172297
2.5666282 -7.631093 1.283518
2.632061 -7.697588 1.3033781
5.0685463 -7.7500443 1.2287328
6.7679043 -7.6115122 1.2715813
6.8648024 -7.6587696 1.3411312
-40.51012 -7.5457029 1.3097634
-40.294304 -7.5495577 1.3346434
-40.174461 -7.4109211 1.3431325
-37.215603 -7.4175563 1.3564965
-34.003746 -7.4151492 1.2200303
-33.915291 -7.4752455 1.2429624
-33.639198 -7.5923905 1.2828406
-33.525848 -7.4657803 1.3135097
-32.459671 -7.4823737 1.2091112
-32.292889 -7.4997687 1.3087783
-32.169483 -7.4514275 1.3002285
-31.516439 -7.5042648 1.3822503
-31.308674 -7.5593386 1.3769684
-28.272228 -7.4909749 1.2919219
-26.087734 -7.4708452 1.2699711
-25.903702 -7.5828781 1.2218851
-25.65374 -7.4971576 1.2669871
-25.574362 -7.4706621 1.2289014
-25.286652 -7.5432768 1.26495
-25.08836 -7.4638495 1.3368266
-24.859381 -7.4730468 1.3114473
-11.107041 -7.5752754 1.2810726
-10.823809 -7.5445633 1.260887
-9.8607044 -7.4827976 1.2800282
-9.7301979 -7.4457469 1.3134645
-9.5335617 -7.5088315 1.3658946
-9.3456316 -7.5039577 1.3940197
-9.0471869 -7.5351076 1.3096782
-8.2302017 -7.5792542 1.3039093
-8.1161747 -7.5298357 1.3480191
-7.8794069 -7.4882851 1.2876042
-7.7845554 -7.5157499 1.2746828
-7.5091524 -7.4164886 1.2236205
-1.5159551 -7.578743 1.3276057
-1.3055604 -7.4728022 1.3493075
-1.0751038 -7.4755464 1.3427788
-0.43081272 -7.4586735 1.326293
-0.32202896 -7.4775677 1.2780814
2.5444622 -7.5354738 1.3158414
5.2609129 -7.5853729 1.2334282
5.4750638 -7.5431871 1.2848423
5.6997194 -7.4975843 1.3380263
6.4873977 -7.5529037 1.3621984
6.7361703 -7.4702854 1.3220623
-40.409161 -7.3679051 1.3574862
-40.168934 -7.3652873 1.2280884
-36.797821 -7.2908382 1.3241835
-36.170677 -7.3545213 1.2319294
-34.071053 -7.2785764 1.2941939
-33.747635 -7.3946013 1.2828683
-33.478821 -7.2459249 1.293533
-33.376595 -7.3564835 1.2857847
-32.649494 -7.3467922 1.217098
-32.370449 -7.330802 1.3795439
-32.157948 -7.3798275 1.3336526
-28.373209 -7.3534656 1.2941053
-26.096384 -7.3245792 1.2251412
-25.881775 -7.2394552 1.3349246
-25.747232 -7.3117194 1.3130975
-25.530077 -7.3665013 1.3338101
-24.908463 -7.2092586 1.3096138
-23.187614 -7.2286816 1.3796165
-10.801227 -7.2944698 1.3965509
-9.8868198 -7.2692232 1.3521984
-9.7419567 -7.2359743 1.3126717
-9.4202862 -7.2503824 1.3582952
-9.2595997 -7.2399521 1.3791965
-9.1583862 -7.3279023 1.3805115
-8.1657028 -7.3742852 1.2307792
-7.8502512 -7.3718405 1.3162552
-7.6334805 -7.2876892 1.2809163
-7.2873278 -7.2355237 1.2181706
-1.1081883 -7.3537331 1.3321743
-0.92368484 -7.2589455 1.3667734
-0.67282498 -7.2399931 1.2695103
-0.53314126 -7.2679844 1.2289547
-0.27489775 -7.353857 1.2789171
2.3623366 -7.317184 1.3014728
2.4319065 -7.3420677 1.3498218
5.7082677 -7.3516059 1.2506962
5.9101496 -7.3077745 1.3027914
6.0606298 -7.3462529 1.355374
6.3144951 -7.2651019 1.3565607
6.4981251 -7.3497047 1.3029902
6.6334629 -7.29214 1.3084435
-40.604591 -7.1732883 1.3916771
-40.075676 -7.1873789 1.2206967
-39.993011 -7.1268768 1.2145586
-37.229153 -7.1189866 1.3094527
-36.998844 -7.1600356 1.3460023
-34.241234 -7.0614634 1.3683649
-34.071529 -7.1561384 1.29422
-33.66016 -7.1153588 1.3085763
-33.269642 -7.1603742 1.2914551
-33.068111 -7.0109148 1.3801486
-32.854843 -7.0673189 1.2177185
-32.339951 -7.1239514 1.3044635
-26.09281 -7.1822042 1.2374755
-25.859819 -7.0527611 1.2978046
-25.752991 -7.1449742 1.2083888
-25.563763 -7.1469927 1.294878
-25.289167 -7.0239129 1.3842572
-24.958324 -7.1474066 1.3993924
-23.197346 -7.0870972 1.3741512
-10.675365 -7.1600447 1.2478347
-10.030691 -7.0458059 1.3028736
-9.8317986 -7.1498232 1.323203
-9.4847164 -7.0587111 1.2641084
-9.3720446 -7.0518212 1.3159266
-9.0921841 -7.0691986 1.3455603
-8.8899546 -7.0059576 1.2647526
-7.4249601 -7.1755104 1.3031888
-7.3147025 -7.0871983 1.3345705
-7.071929 -7.0095634 1.2374654
-0.84065777 -7.1995549 1.365682
-0.68421131 -7.0915017 1.3268919
-0.5013051 -7.1313877 1.2580683
-0.36646664 -7.0674276 1.317834
-0.066935241 -7.1313343 1.2591603
0.10823393 -7.1485362 1.2709484
2.1628122 -7.02915 1.3151031
2.2336411 -7.0767379 1.2566381
6.0856543 -7.1315184 1.2650015
6.3079939 -7.0992308 1.3426901
6.4980087 -7.0736141 1.284321
6.6194181 -7.1861925 1.264405
-40.224297 -6.8776345 1.3496594
-40.123459 -6.9881306 1.2234697
-39.722481 -6.8691578 1.3018489
-38.872013 -6.9539032 1.368582
-38.753258 -6.8801498 1.3594193
-37.323997 -6.988204 1.3759772
-37.148502 -6.8864837 1.3206416
-34.239868 -6.8752584 1.3600296
-34.181015 -6.8222699 1.3574238
-33.873978 -6.8706293 1.3609922
-33.624912 -6.9890814 1.3424352
-33.236542 -6.9040327 1.2871006
-33.036289 -6.8426447 1.243238
-32.209484 -6.9727073 1.2530804
-32.063305 -6.882319 1.2279426
-28.389946 -6.811038 1.2167265
-23.351128 -6.9470272 1.3778621
-9.8711729 -6.9309664 1.3020934
-9.709857 -6.899292 1.3309443
-9.5083733 -6.8583341 1.3041236
-9.3391304 -6.8675718 1.3323053
-9.1546488 -6.9545937 1.3618972
-8.9443359 -6.8792615 1.2958293
-7.2481527 -6.9569025 1.2590477
-7.1090837 -6.9127579 1.2862536
-6.9566293 -6.895143 1.2824947
-0.46978962 -6.9506526 1.3573017
-0.32502735 -6.8913851 1.3247021
-0.12737702 -6.8909545 1.3333637
0.035059929 -6.9247332 1.2447215
2.0914652 -6.8940926 1.2551646
4.8233671 -6.9250832 1.2690738
6.0785708 -6.9101615 1.3088657
6.2985358 -6.8687801 1.3227195
6.4492068 -6.9566131 1.2774365
-40.136063 -6.7870684 1.2238775
-39.950012 -6.6875486 1.2672046
-39.734379 -6.7351928 1.3019868
-38.763725 -6.6424875 1.3583483
-37.314796 -6.7000856 1.3557336
-37.030178 -6.6789489 1.2010893
-36.980297 -6.7085848 1.3422413
-36.20639 -6.6595659 1.2290962
-36.174156 -6.716455 1.2246001
-34.207787 -6.7487354 1.3623204
-33.960884 -6.7369351 1.3914759
-33.446445 -6.7498159 1.2638851
-33.058891 -6.7322283 1.3609773
-32.726627 -6.65728 1.2888919
-28.446686 -6.6704612 1.2299515
-26.720963 -6.6159587 1.2236816
-25.523514 -6.6973391 1.3619246
-23.894884 -6.6234169 1.3218539
-23.439915 -6.7976484 1.3772153
-10.034483 -6.7121868 1.3898101
-9.9192963 -6.6699781 1.3022499
-9.6834784 -6.7364297 1.339693
-9.5323353 -6.7614112 1.3188993
-9.2891426 -6.6984596 1.3139212
-9.0363092 -6.6637259 1.2423956
-8.9132776 -6.706255 1.2992564
-7.203639 -6.6451354 1.384222
-7.1137075 -6.6819725 1.3241746
-6.9411712 -6.6805096 1.3007853
-0.24133226 -6.7955236 1.3644361
-0.13265985 -6.7241597 1.3292106
0.030174136 -6.6125364 1.2769518
0.21586418 -6.6960726 1.3515062
1.9174951 -6.6404495 1.2808337
2.0394788 -6.7399759 1.2958601
5.015851 -6.7827783 1.276684
5.2983675 -6.6711197 1.2907461
5.9309673 -6.6567183 1.2688183
6.1560059 -6.6851511 1.369446
6.2630725 -6.7097864 1.2767392
-40.217186 -6.544229 1.3123839
-40.117748 -6.5022883 1.2751015
-39.869167 -6.5188332 1.3102026
-38.520241 -6.5638428 1.340223
-37.08567 -6.4989977 1.3011992
-36.730835 -6.4550629 1.2938042
-36.217644 -6.4299474 1.2675873
-33.918152 -6.4898853 1.3871603
-33.788837 -6.4081445 1.2623165
-33.596146 -6.505619 1.381621
-28.573673 -6.4999576 1.3469287
-26.916435 -6.4511838 1.2167228
-26.681414 -6.4835682 1.2123536
-26.572006 -6.4574108 1.2230473
-25.600946 -6.527081 1.3836949
-24.441637 -6.4053779 1.3076057
-24.18285 -6.535141 1.2724352
-23.86293 -6.4289999 1.3891653
-23.502798 -6.5453458 1.3708217
-10.508163 -6.4517021 1.2741439
-10.277716 -6.453999 1.3125448
-10.06268 -6.4648304 1.3032516
-9.8153858 -6.5345888 1.2939148
-9.7105293 -6.4944944 1.3791535
-9.4223261 -6.5523467 1.3776011
-9.3424149 -6.4820175 1.3796415
-9.109436 -6.5095086 1.2424067
-8.9570084 -6.4683776 1.3528132
-8.6945934 -6.5235505 1.281907
-7.2178993 -6.5539074 1.3134742
-7.1068878 -6.526144 1.245154
-6.8981514 -6.4706087 1.2991223
-0.081642993 -6.5488534 1.3266251
0.13014385 -6.5278401 1.2809575
0.26116931 -6.4617176 1.2894695
0.45444095 -6.4866371 1.3496463
1.7860645 -6.4218717 1.2759647
1.8451127 -6.5067482 1.3505561
5.5150681 -6.5461836 1.3006058
5.8179197 -6.4702568 1.2838049
6.0737686 -6.5100961 1.2975454
6.2445655 -6.5883603 1.2407641
-93.667847 -6.3031731 1.2251678
-40.030556 -6.3638144 1.3584063
-39.963371 -6.2587452 1.2922738
-39.513809 -6.246623 1.300247
-37.035458 -6.3520279 1.3964803
-36.890728 -6.352663 1.3650411
-36.718399 -6.3156915 1.3444456
-36.47924 -6.3815031 1.2996914
-36.30402 -6.3211141 1.2825696
-36.111073 -6.2742834 1.2567189
-35.967056 -6.333416 1.2311721
-34.015255 -6.2669029 1.3963634
-33.883266 -6.3595533 1.2758881
-33.675934 -6.23979 1.2778201
-33.3932 -6.3641791 1.2440182
-33.11129 -6.2283745 1.372009
-32.24152 -6.3069558 1.3398008
-28.495367 -6.2867441 1.3029764
-28.379608 -6.2747316 1.3781259
-27.119476 -6.3272171 1.2346222
-26.887032 -6.3416004 1.2320191
-26.628538 -6.2782459 1.3238267
-26.529863 -6.3386307 1.298599
-26.329273 -6.2342973 1.2524104
-23.980034 -6.2072468 1.3879464
-10.651936 -6.2707753 1.3124671
-10.529125 -6.2319107 1.3637152
-10.278398 -6.2697716 1.3719555
-10.172888 -6.3352437 1.3489391
-9.7818871 -6.305027 1.3730869
-7.2459116 -6.3176126 1.3784142
-6.8831806 -6.3010788 1.3287675
0.1760796 -6.3896337 1.2041144
0.33098271 -6.3200636 1.2585938
0.50939828 -6.3347435 1.3567783
0.66963732 -6.2504911 1.3492249
1.714931 -6.3089857 1.3315315
2.0887072 -6.3612752 1.3906136
5.7566099 -6.3273602 1.3365008
5.9360156 -6.29319 1.2977505
6.066165 -6.3128166 1.317466
-93.686737 -6.0902591 1.2257535
-40.106628 -6.0948863 1.2212515
-39.803444 -6.0113211 1.3163738
-39.465523 -6.0092897 1.2843754
-36.149105 -6.0229626 1.2825658
-34.235542 -6.0919714 1.3643472
-34.161449 -6.1509476 1.3554907
-33.828678 -6.1206355 1.3124872
-33.270866 -6.063426 1.2426678
-33.065025 -6.1648664 1.2353309
-32.823627 -6.0333695 1.3415909
-32.069469 -6.0714707 1.3267636
-28.435925 -6.193203 1.3310885
-28.317404 -6.0470247 1.3256121
-26.893042 -6.073957 1.287394
-26.719532 -6.0864015 1.2043629
-26.468056 -6.1293793 1.2709951
-24.485121 -6.1538529 1.3002751
-24.080574 -6.1429458 1.3289402
-23.455948 -6.1869545 1.2141703
-10.825272 -6.0893402 1.3930809
-10.663188 -6.1679683 1.3233362
-8.6159172 -6.1814909 1.2901285
-7.6633968 -6.0558109 1.3238389
-7.4880056 -6.0370898 1.2903314
-6.9914694 -6.0057726 1.315349
-6.698823 -6.0765185 1.2526829
0.50893152 -6.15552 1.265522
0.75655794 -6.1201811 1.2984326
0.8859815 -6.0641317 1.3080475
1.0451299 -6.0256991 1.3227477
1.5535353 -6.0396514 1.3314326
1.6905133 -6.1586814 1.3300178
5.7194815 -6.0999117 1.310465
5.8641148 -6.0858254 1.2523224
6.0625658 -6.1156216 1.3233483
-39.447426 -5.9664016 1.2831368
-39.236004 -5.8862543 1.3939961
-39.158306 -5.9470081 1.3836411
-38.938408 -5.8999887 1.2514784
-36.079998 -5.8915091 1.2880204
-33.753475 -5.9252286 1.369524
-33.224739 -5.8434038 1.246075
-32.867073 -5.8418016 1.2202746
-31.86211 -5.8105927 1.3647139
-26.875851 -5.9248238 1.2472222
-26.682766 -5.9103842 1.2649907
-26.530563 -5.9304438 1.2066793
-26.281637 -5.9337711 1.228308
-24.003788 -5.9624057 1.2631276
-23.961735 -5.9445724 1.3765664
-23.409168 -5.816329 1.3859246
-11.022863 -5.8330202 1.3708447
-10.908812 -5.9425621 1.3119867
-10.760714 -5.875782 1.393847
-7.7067733 -5.8967805 1.2780237
-7.4927335 -5.8687143 1.2862909
-7.3537941 -5.9072199 1.3105288
-7.0606709 -5.9086776 1.351915
-6.8575287 -5.9256611 1.3158633
-6.7198324 -5.8704453 1.2540865
-6.5224357 -5.8517723 1.2732447
-6.2576408 -5.844018 1.3989867
-5.8595343 -5.9069014 1.306787
-5.7542162 -5.8563929 1.2510841
-5.5130606 -5.8048401 1.2254235
0.76166856 -5.9775252 1.271668
0.9257803 -5.9324942 1.2490568
1.103533 -5.8991089 1.3130195
1.2688942 -5.8641567 1.3030173
1.5177802 -5.8733311 1.2464799
2.9270029 -5.9192381 1.248654
3.0447588 -5.8296328 1.2548432
5.4903688 -5.890038 1.2909173
5.705039 -5.9164414 1.2699625
5.9513025 -5.9153919 1.3116857
-39.78764 -5.7756057 1.3175588
-39.149258 -5.7387676 1.3877473
-36.255928 -5.7450194 1.3306642
-33.498878 -5.769558 1.2416457
-33.234016 -5.6987143 1.234211
-32.924225 -5.7715969 1.2215416
-32.019825 -5.7257185 1.3709508
-31.493126 -5.6600742 1.2643138
-28.205267 -5.6793299 1.3259044
-27.267345 -5.63416 1.2955941
-27.190365 -5.7679152 1.2174362
-26.632401 -5.788106 1.2976671
-26.440231 -5.635541 1.2311972
-26.376488 -5.679266 1.2429934
-23.911634 -5.6825986 1.2642745
-11.115568 -5.705657 1.3371073
-10.87356 -5.7218509 1.3736579
-7.7053003 -5.6978693 1.3379364
-7.5040927 -5.6927481 1.3083345
-7.3072758 -5.6595917 1.3002102
-7.1256256 -5.6938953 1.2787493
-6.8983498 -5.6798735 1.3137889
-6.7519503 -5.7247729 1.2652483
-6.5005007 -5.6913238 1.2916503
-6.2012768 -5.6696029 1.2139571
-6.0625815 -5.6841512 1.2320865
-5.9381776 -5.6791978 1.2691327
-5.781456 -5.6753616 1.3489723
-5.5129156 -5.7122021 1.2170738
-5.2870173 -5.6850176 1.3163042
-5.0945721 -5.638135 1.2249397
-4.7807331 -5.6463594 1.2346511
1.1225742 -5.7541819 1.2602229
1.2769952 -5.7288036 1.2659398
1.511539 -5.7270389 1.3514689
1.713501 -5.7026262 1.3095002
1.8053904 -5.674263 1.2252951
3.1134768 -5.7279911 1.2575666
3.2336092 -5.6336136 1.2639329
5.3072906 -5.6587949 1.2069873
5.5045753 -5.7026992 1.2964863
5.6187201 -5.71103 1.2658398
5.824048 -5.7101088 1.2989924
-39.143471 -5.5927992 1.3908886
-38.805817 -5.434504 1.2681947
-38.637634 -5.4060707 1.2505257
-38.527199 -5.439013 1.2351658
-33.985889 -5.4884124 1.3372878
-33.778194 -5.4067159 1.3032223
-33.302551 -5.4926581 1.2440617
-33.030594 -5.5338526 1.356536
-31.800291 -5.5536327 1.3572545
-31.566391 -5.5549459 1.2655432
-27.271088 -5.5009556 1.2366207
-27.151588 -5.5182796 1.2068396
-26.478416 -5.5138316 1.3137361
-26.267239 -5.4921656 1.2207983
-23.907314 -5.5166283 1.3468229
-23.776245 -5.5674429 1.350111
-11.270164 -5.5081673 1.2639253
-11.106214 -5.5410457 1.3143549
-7.6780348 -5.46842 1.2614067
-7.4560037 -5.4410357 1.3000734
-7.3501053 -5.5020466 1.3040454
-7.1021051 -5.5491295 1.2657592
-6.8659639 -5.4794769 1.3007848
-6.6635308 -5.4566073 1.2733631
-6.4712038 -5.4622927 1.2907234
-6.2944813 -5.4575243 1.2230139
-6.1143651 -5.5205574 1.2390407
-5.8867087 -5.5562015 1.2702669
-5.6974306 -5.4863625 1.3183327
-5.4996085 -5.5220313 1.3284469
-5.3160763 -5.5210981 1.276562
-5.0709229 -5.4668236 1.3172268
-4.8728867 -5.5280876 1.2601073
-4.7033424 -5.4987464 1.2728508
1.7456006 -5.526794 1.2471778
1.8999262 -5.542336 1.2756393
2.1097865 -5.4751716 1.2360485
3.3178587 -5.4725599 1.2667878
3.4925594 -5.5228949 1.3853614
5.3577595 -5.4520359 1.3048489
5.4967752 -5.5158944 1.2459078
5.6891403 -5.4896975 1.2855757
-38.798431 -5.2268486 1.2826583
-33.757088 -5.2958646 1.3437567
-33.488308 -5.2906313 1.399326
-33.149071 -5.3413925 1.2689409
-32.783638 -5.2973461 1.2065021
-31.682732 -5.2749805 1.3265287
-31.539654 -5.2773457 1.3602099
-31.211136 -5.35043 1.3657044
-31.090038 -5.2168484 1.3167291
-27.261309 -5.3322916 1.2625334
-27.104918 -5.3464694 1.2064784
-26.204844 -5.3888288 1.2711326
-26.046631 -5.3174348 1.3133011
-25.569336 -5.2223263 1.2142162
-24.306553 -5.2442589 1.3731791
-24.075874 -5.2713537 1.2891436
-23.914421 -5.2728767 1.3500067
-23.758705 -5.3908978 1.3423597
-23.463717 -5.218298 1.2008387
-14.703027 -5.2524333 1.3329728
-14.458693 -5.255744 1.3465593
-11.430733 -5.2698717 1.2997992
-11.33439 -5.3176327 1.2626425
-7.7014527 -5.2740059 1.2851725
-7.5427556 -5.3190527 1.3198948
-7.3098516 -5.311141 1.2908487
-7.1517286 -5.2832003 1.3205205
-6.929162 -5.349853 1.2762935
-6.7238798 -5.2501554 1.2651038
-6.5038986 -5.336081 1.2915761
-6.3566732 -5.3034716 1.2204443
-6.0803356 -5.3616152 1.2941378
-5.8572536 -5.3335881 1.3414562
-5.6883678 -5.317729 1.2896677
-5.5468364 -5.2876492 1.2873282
-5.3454943 -5.3078842 1.3578229
-5.1200657 -5.312933 1.2878014
-4.9355369 -5.2889972 1.2985665
-4.728354 -5.2853065 1.3186693
-4.4974594 -5.2866926 1.3070288
-4.319025 -5.3255167 1.3324461
-4.1789961 -5.3112311 1.2329125
1.932291 -5.3527899 1.2773718
2.0762258 -5.3102407 1.3082283
2.2701433 -5.2818336 1.3092527
2.4021368 -5.2866383 1.247263
3.4993911 -5.3577271 1.3305627
5.1553526 -5.3266191 1.3429532
5.2995925 -5.3148212 1.2844436
5.5110235 -5.3577518 1.2980933
5.6185589 -5.2202768 1.2229084
-34.450806 -5.1041479 1.3958127
-33.890312 -5.1728506 1.3132756
-33.663208 -5.0904155 1.3771478
-33.504528 -5.0073624 1.3573232
-33.303604 -5.1883683 1.3805974
-33.017155 -5.1100979 1.2138063
-32.898499 -5.1475639 1.2365484
-32.308754 -5.1070795 1.3192486
-32.064766 -5.178091 1.363958
-31.81171 -5.1903896 1.2695965
-31.71158 -5.1528406 1.3461715
-31.324545 -5.0195508 1.3998367
-31.078875 -5.0326753 1.3878099
-27.711933 -5.0114284 1.2373409
-27.420242 -5.0876794 1.2081721
-27.338577 -5.0988817 1.2175782
-27.116432 -5.080883 1.2272292
-26.912155 -5.1453133 1.3990192
-25.709759 -5.1218672 1.2243752
-25.466434 -5.0899601 1.2612439
-25.338505 -5.0492887 1.3017035
-24.075039 -5.0557632 1.2999306
-23.907644 -5.0938034 1.2886472
-23.744381 -5.0505905 1.3045685
-23.556637 -5.0937309 1.2744665
-14.446523 -5.0502706 1.3345261
-14.308359 -5.0429649 1.3180265
-14.135954 -5.010632 1.2006234
-13.856634 -5.0781088 1.3066385
-13.757004 -5.0563812 1.2643402
-12.048622 -5.0940218 1.3127055
-11.924999 -5.1081295 1.3028321
-11.79093 -5.1208076 1.3232995
-11.505088 -5.0738654 1.3443593
-11.319369 -5.0569482 1.301543
-11.138764 -5.1263142 1.2892203
-10.891753 -5.0330715 1.3443618
-7.8151822 -5.1721635 1.3077534
-7.6681662 -5.1053438 1.2714587
-7.5124383 -5.0812736 1.3226986
-7.3757095 -5.0819917 1.278986
-7.0629792 -5.1064177 1.2741659
-6.9522171 -5.0931435 1.3007121
-6.7462025 -5.0673542 1.2518749
-6.481575 -5.089375 1.3237226
-5.9517059 -5.1031609 1.3521184
-5.6571789 -5.1085281 1.2886001
-5.5676064 -5.1221662 1.3466733
-5.3383331 -5.0519972 1.3483343
-5.0693617 -5.0562215 1.3443329
-4.905664 -5.0753655 1.3420912
-4.6306067 -5.0698223 1.3549805
-4.4851398 -5.0497727 1.3727981
-4.3079338 -5.1052146 1.2839701
-4.090167 -5.1190171 1.2275658
2.3023405 -5.1061907 1.2945082
2.4682534 -5.113615 1.314728
2.7072897 -5.0852451 1.2595004
3.3049097 -5.1089091 1.25991
3.4003916 -5.1255884 1.2666241
3.6887341 -5.1651745 1.3953578
4.9334092 -5.0235648 1.3531938
5.1068897 -5.1165915 1.2670004
5.2287569 -5.1523409 1.2892989
5.5042176 -5.1021476 1.2341747
-34.303638 -4.919899 1.2301658
-34.088627 -4.8223829 1.2489102
-33.581978 -4.9910765 1.3686637
-33.329647 -4.8823195 1.3367918
-33.038952 -4.8643351 1.2968254
-32.884491 -4.9034395 1.2791204
-28.473972 -4.8831029 1.3046973
-28.164461 -4.8165331 1.2660975
-27.422859 -4.8814993 1.2148168
-27.371799 -4.8705707 1.2197815
-27.181385 -4.9097085 1.2033951
-26.910477 -4.886467 1.3911742
-26.736156 -4.8522792 1.226625
-26.221304 -4.9171572 1.2208852
-26.072289 -4.9971447 1.3394146
-25.889694 -4.8772707 1.2428552
-25.670231 -4.9042187 1.2207645
-25.4627 -4.8861265 1.2733759
-25.339975 -4.8572907 1.2873219
-25.181938 -4.9034977 1.2990302
-24.293335 -4.8767371 1.3491694
-24.191051 -4.9322233 1.3953891
-23.925703 -4.9405289 1.2952573
-23.736513 -4.9439783 1.2202699
-23.516945 -4.8480134 1.3463764
-14.216585 -4.956666 1.2960595
-14.1628 -4.9795666 1.2936257
-13.869078 -4.8386726 1.2940809
-13.71572 -4.8825054 1.2376308
-12.288828 -4.8593454 1.3321234
-12.104188 -4.9162059 1.3295758
-11.870831 -4.9408135 1.3718385
-11.447509 -4.8213596 1.3540252
-11.262575 -4.9783707 1.3240613
-11.141414 -4.9420414 1.3124473
-10.724813 -4.8549781 1.3642771
-7.8416986 -4.926321 1.3266915
-7.6644974 -4.9919095 1.2772167
-7.4555011 -4.915576 1.2993848
-7.3372788 -4.9206948 1.2971379
-7.1228838 -4.862215 1.3288873
-6.9336395 -4.9328766 1.3049157
-6.7407589 -4.9755359 1.293407
-6.4844694 -4.8708906 1.2543864
-6.3528967 -4.8894596 1.2408088
-5.7034559 -4.8909049 1.3298268
-5.512835 -4.8708696 1.2494979
-5.2746973 -4.860477 1.3539051
-5.0383272 -4.9315586 1.3218327
-4.8785663 -4.9451985 1.3634714
-4.6746383 -4.9288526 1.2985909
-4.5229931 -4.8695221 1.3044478
-4.3123016 -4.8279171 1.2671583
2.5351715 -4.9519911 1.3058891
2.6666512 -4.9137144 1.338153
2.8626525 -4.8842578 1.3386378
3.0650792 -4.8559742 1.2751689
3.3101501 -4.8832202 1.2567804
3.7787476 -4.9676647 1.3998597
4.8953199 -4.9081011 1.2931015
5.0734439 -4.9453602 1.2860684
5.3219728 -4.8963952 1.2497317
5.4190979 -4.9009237 1.2153897
5.6541004 -4.8994875 1.3801081
5.816 -4.9206991 1.2981493
-34.312489 -4.6628685 1.3516698
-34.098137 -4.6716738 1.2035813
-33.667316 -4.6146517 1.3099201
-33.304466 -4.6795797 1.3026465
-33.127205 -4.7305908 1.3269639
-32.945862 -4.7371049 1.2882619
-32.656033 -4.6669984 1.3148235
-28.411131 -4.6222782 1.3092626
-28.277311 -4.6461935 1.3246412
-28.157999 -4.6387444 1.2697315
-27.660051 -4.6316581 1.2398385
-27.462029 -4.7547083 1.2514775
-27.227833 -4.6451273 1.2351904
-27.118851 -4.7376738 1.2489134
-26.884457 -4.6251593 1.3013291
-26.426643 -4.6430035 1.230847
-26.32798 -4.6448097 1.2212765
-26.167372 -4.6499596 1.2083127
-25.866817 -4.7657461 1.2695014
-25.646776 -4.7393751 1.2910244
-25.515169 -4.6969156 1.349879
-25.380043 -4.7298355 1.3295861
-24.159872 -4.708837 1.3229303
-23.869192 -4.6779594 1.336172
-23.731255 -4.7320356 1.3305969
-23.565599 -4.730217 1.3146574
-13.883957 -4.7171092 1.3180708
-13.547989 -4.6224413 1.357852
-12.04825 -4.6832237 1.3113868
-11.963929 -4.6598043 1.3273377
-11.745277 -4.713963 1.3230199
-11.572895 -4.7518802 1.341495
-11.334899 -4.6192174 1.3728389
-10.743029 -4.6924334 1.3559065
-10.526526 -4.7494578 1.371034
-10.310496 -4.6914911 1.3651751
-8.0519037 -4.7499914 1.2508471
-7.9288139 -4.688899 1.3261425
-7.5195818 -4.6756778 1.3122861
-7.3194237 -4.6884637 1.3541249
-7.0547862 -4.662674 1.3439815
-6.8882651 -4.7492228 1.3072019
-6.6504965 -4.7892952 1.3694524
-6.5407724 -4.7793193 1.3809586
-5.6860771 -4.6938295 1.2373874
-5.5466528 -4.7201824 1.3168137
-5.3208804 -4.6909394 1.2774463
-5.120347 -4.741436 1.2678226
-4.9523244 -4.7306542 1.2997887
-4.7012162 -4.6941228 1.2570294
-4.5303254 -4.6914039 1.3404062
-4.3788862 -4.7916651 1.2715839
-4.0353279 -4.6187582 1.2637198
2.9430733 -4.6909065 1.3271893
3.0950489 -4.6894159 1.3887641
3.3145165 -4.6933765 1.2865436
3.4954987 -4.6941032 1.2666038
3.7778721 -4.6919947 1.3979561
4.7555933 -4.6885128 1.2675688
4.9210248 -4.7057681 1.3501455
5.0196686 -4.770895 1.3324175
5.2727137 -4.7177615 1.2203592
5.5216522 -4.6745224 1.3747394
5.7174301 -4.7801747 1.2941945
-33.865486 -4.5367975 1.21376
-33.707176 -4.4202943 1.208168
-33.567101 -4.5519915 1.3325539
-33.32542 -4.5100389 1.3213159
-33.117607 -4.5085001 1.2892245
-32.844261 -4.5340433 1.2841115
-32.449993 -4.4854326 1.2296247
-32.264645 -4.445497 1.3887293
-32.10733 -4.5401926 1.3559403
-31.880554 -4.4501047 1.3921224
-28.258244 -4.4627333 1.2615261
-28.158457 -4.5289807 1.2610208
-27.93399 -4.4844522 1.2527492
-27.64143 -4.5615172 1.2659237
-27.268358 -4.5230551 1.2288175
-27.076553 -4.5225501 1.2977651
-26.914581 -4.4837637 1.3252711
-26.708044 -4.4753737 1.2891641
-26.275417 -4.4407473 1.2659408
-26.081963 -4.5430336 1.2625333
-25.961304 -4.4032402 1.2980559
-25.704945 -4.504951 1.2902668
-25.512192 -4.5476751 1.3425223
-24.055498 -4.5174131 1.3671762
-23.954029 -4.5716367 1.3073041
-23.546837 -4.543273 1.3422705
-13.643316 -4.5952578 1.360137
-13.509755 -4.5628338 1.3176079
-13.2706 -4.4470735 1.3478143
-13.115494 -4.4707289 1.2909489
-11.945341 -4.5505075 1.3436332
-11.706557 -4.5230389 1.3419827
-11.445946 -4.5683808 1.3640753
-11.398966 -4.4584107 1.2833059
-11.015713 -4.5031548 1.308533
-10.891975 -4.5652299 1.3157163
-10.336709 -4.5854487 1.3638244
-8.2765112 -4.4930296 1.272198
-8.1241035 -4.438858 1.2825838
-7.9557962 -4.5482321 1.2733915
-7.6174889 -4.4620085 1.3363018
-7.4979448 -4.5627575 1.2758727
-7.2852764 -4.5565109 1.3347448
-7.0320444 -4.5386219 1.3233101
-6.9402885 -4.5364494 1.2662265
-6.5024672 -4.4603195 1.3420799
-5.8384962 -4.5747414 1.3104311
-5.6961274 -4.5257516 1.2628686
-5.4396825 -4.4580221 1.3253464
-5.288486 -4.4665017 1.2491927
-5.1263366 -4.4463387 1.2924626
-4.9461265 -4.5441537 1.290904
-4.7481737 -4.5657024 1.3192604
-4.4607849 -4.416225 1.2231591
3.1571569 -4.5520468 1.3387424
3.3093586 -4.5010719 1.3741801
3.4783192 -4.5815353 1.2940071
3.7190049 -4.4832482 1.3595139
4.5570846 -4.5155234 1.3856723
4.7216339 -4.4797816 1.2652445
4.8104539 -4.5093679 1.3209506
5.1066165 -4.4579239 1.215898
5.2915897 -4.5007253 1.288255
5.4793015 -4.4055147 1.2848959
5.6017609 -4.5904832 1.2896726
-33.828941 -4.2142305 1.2449207
-33.716904 -4.3991652 1.2971401
-33.273041 -4.2883582 1.3593949
-32.902958 -4.3352504 1.3078181
-32.661785 -4.2921023 1.2928267
-32.581093 -4.2852697 1.2719281
-32.331184 -4.3275623 1.3207432
-28.285284 -4.2322812 1.264966
-28.105927 -4.3178196 1.304678
-27.951103 -4.3416901 1.2423356
-27.047165 -4.351696 1.3224581
-26.915472 -4.3187819 1.2231967
-26.675539 -4.3054609 1.306692
-26.581944 -4.3806481 1.3550996
-26.366961 -4.34654 1.2718084
-26.041344 -4.344799 1.2844946
-25.970484 -4.265358 1.2667559
-25.759579 -4.3586903 1.3598928
-25.538643 -4.395134 1.335955
-23.967106 -4.3563123 1.3899344
-13.150165 -4.3972855 1.2099336
-11.481249 -4.3858624 1.2792599
-8.2525225 -4.316864 1.3920687
-8.1080999 -4.2774343 1.3167363
-7.9164376 -4.3079867 1.2880156
-7.6780214 -4.3333082 1.2828919
-7.5560408 -4.3299866 1.293676
-7.3571949 -4.2609806 1.3099294
-7.0543394 -4.3255162 1.3515393
-6.8852692 -4.2849817 1.3027902
-6.7633362 -4.36415 1.3642714
-5.6399446 -4.2738757 1.2327282
-5.531364 -4.2866969 1.3138032
-5.264792 -4.3394432 1.2903908
-5.0671473 -4.3184595 1.338014
-4.9276462 -4.2674294 1.3172095
-4.7476454 -4.282424 1.2703717
-4.4667645 -4.3583193 1.2375001
-4.2002926 -4.3896952 1.3582785
3.5468206 -4.2970734 1.360482
3.7978544 -4.3841534 1.2829896
3.8555169 -4.3128295 1.343526
4.0087004 -4.2342834 1.2955016
4.4996428 -4.3217649 1.3250997
4.6915531 -4.3224945 1.324271
4.953063 -4.3125286 1.2147852
5.0313339 -4.2779856 1.2012913
5.3495131 -4.2842517 1.3238895
19.356272 -4.2878466 1.3186584
-33.897251 -4.1338468 1.2619125
-33.644608 -4.0696888 1.3306237
-33.536068 -4.1351337 1.3021336
-33.117393 -4.0634379 1.3666035
-32.444771 -4.134181 1.2751398
-32.303036 -4.0583248 1.2643086
-31.938848 -4.1903372 1.3800412
-28.263603 -4.1389003 1.2628793
-28.071295 -4.1364331 1.2878525
-27.871925 -4.0687523 1.395293
-27.618595 -4.1022148 1.2502644
-27.083658 -4.0951395 1.2008623
-26.866894 -4.113102 1.2014198
-26.695633 -4.0981064 1.2848438
-26.039867 -4.1461806 1.2783667
-25.676228 -4.0532737 1.3895044
-8.4038744 -4.1899076 1.3740705
-8.3015404 -4.0846443 1.2636197
-8.1361876 -4.1334791 1.2941089
-7.9336329 -4.1009932 1.2806263
-7.6858721 -4.1864405 1.3487442
-7.0665979 -4.1311631 1.3271509
-6.9136047 -4.1630354 1.2572448
-6.7174406 -4.0765295 1.3657888
-5.7016344 -4.0362992 1.2035044
-5.5187073 -4.0953188 1.3494987
-5.2537928 -4.1110907 1.3610864
-5.0949049 -4.1354961 1.3706143
-4.948863 -4.1255198 1.3686596
3.7295895 -4.1707067 1.3707534
3.9070983 -4.0517836 1.3811039
4.1207266 -4.1615448 1.3022788
4.3007517 -4.1059933 1.3072932
4.5482287 -4.1060596 1.3301769
4.632885 -4.1811295 1.2527394
4.9163699 -4.130825 1.2021561
5.1488647 -4.1188259 1.3597676
5.2975359 -4.099123 1.2780439
19.354816 -4.0436296 1.2943726
19.479702 -4.1836023 1.2817622
-33.920727 -3.9694333 1.2594397
-33.731373 -3.9119656 1.3360177
-33.474339 -3.8525248 1.3008363
-33.007332 -3.9022994 1.378997
-32.806175 -3.8238382 1.3587098
-32.216 -3.8688691 1.2560039
-32.149548 -3.8119235 1.2198596
-31.951605 -3.8199699 1.3779755
-27.90403 -3.9326954 1.2662556
-27.683847 -3.9024982 1.2336028
-27.564459 -3.8786631 1.2266613
-27.058968 -3.8752041 1.2879393
-26.712904 -3.8953199 1.3135896
-26.590164 -3.953763 1.3147874
-26.262859 -3.8619072 1.3603595
-25.92514 -3.835638 1.3977625
-25.7127 -3.8915854 1.2137241
-24.961443 -3.887816 1.2870915
-12.439308 -3.8515759 1.2001498
-8.3095303 -3.9781635 1.259812
-8.0807848 -3.9063778 1.2682984
-5.6798096 -3.877727 1.3333278
-5.1219969 -3.8208027 1.3599209
4.0927649 -3.9359119 1.3924354
4.3252068 -3.928813 1.3278449
4.4712033 -3.893188 1.3241295
5.0923233 -3.9135692 1.3285865
19.369787 -3.9238839 1.2721703
19.439175 -3.807585 1.3155351
19.718784 -3.8674841 1.2870486
-33.65773 -3.7084954 1.3353968
-33.469685 -3.7117183 1.3129379
-33.319355 -3.6748736 1.3404286
-33.055191 -3.6630607 1.2660844
-32.899105 -3.6655672 1.3457575
-32.720383 -3.6840215 1.3631775
-32.446796 -3.6665649 1.2699826
-32.071461 -3.6403682 1.2601963
-31.968468 -3.7280867 1.2001649
-27.813204 -3.7322273 1.2588489
-27.572853 -3.7240181 1.2760112
-27.36187 -3.6938725 1.2961271
-26.659872 -3.6776443 1.3546228
-26.30406 -3.7003713 1.3828855
-26.170181 -3.6612978 1.2057288
-25.663696 -3.6997852 1.2444682
-25.275627 -3.6606956 1.2860096
-25.197979 -3.6364541 1.2104411
-14.270592 -3.6370904 1.3696938
-14.164699 -3.6190197 1.2511263
-12.484837 -3.6111486 1.3400512
-8.2689791 -3.7214015 1.3911575
-8.0324249 -3.6897249 1.2884467
-7.8120813 -3.7870748 1.3428984
-5.6633654 -3.7816176 1.3311623
-5.3959932 -3.7802477 1.3213905
4.3683224 -3.7377262 1.2764763
4.4797535 -3.7205222 1.3059014
4.6993775 -3.6766071 1.3485943
4.8135929 -3.6216917 1.2992826
5.0313859 -3.7273693 1.3119944
19.391563 -3.6031251 1.2676126
-33.652077 -3.4836261 1.2659547
-33.434059 -3.4909685 1.3153632
-33.296673 -3.490011 1.3201671
-33.028206 -3.4648476 1.3551388
-32.996696 -3.5646644 1.3679651
-32.425583 -3.429754 1.2661256
-32.078514 -3.4917383 1.2679727
-31.854034 -3.4912519 1.2527645
-31.761326 -3.4044518 1.2293117
-27.273359 -3.4346495 1.3475621
-26.992622 -3.4224935 1.3706596
-26.633327 -3.5404105 1.3799314
-26.561998 -3.4198184 1.2095191
-26.268822 -3.5394363 1.2150168
-25.854855 -3.5985317 1.2414424
-25.623621 -3.4848943 1.2777046
-25.282944 -3.52384 1.3037229
-25.109478 -3.5217156 1.3205781
-14.007785 -3.5062208 1.3503363
-13.91663 -3.465013 1.3278291
-12.485147 -3.4867177 1.3089385
-12.329583 -3.5086284 1.2731445
-12.181155 -3.4132698 1.3196301
-8.0366611 -3.5735886 1.3482604
-7.2178707 -3.4143097 1.2500989
-7.1355438 -3.4670472 1.3064375
4.3313961 -3.5987542 1.3238145
4.5386934 -3.5476527 1.2495693
4.6899977 -3.5249569 1.3149967
4.8718839 -3.4740376 1.3150136
5.0080566 -3.4954543 1.3328786
19.343262 -3.5388217 1.3051862
-87.038002 -3.2125287 1.2971686
-33.556328 -3.2975464 1.2463427
-33.263893 -3.318531 1.336971
-33.091316 -3.3187368 1.2970692
-32.909439 -3.364511 1.2276006
-32.750797 -3.3241568 1.3293753
-32.517593 -3.2787046 1.3274308
-32.358902 -3.3290892 1.3099856
-32.108543 -3.3136954 1.2625302
-31.880131 -3.2889707 1.2822287
-31.706837 -3.326993 1.2578156
-31.512306 -3.3575444 1.2329876
-27.293114 -3.2746444 1.374064
-27.100058 -3.3055491 1.3826835
-26.90295 -3.3335226 1.2949951
-26.475122 -3.3231487 1.2301936
-25.769714 -3.2767942 1.2596409
-25.380623 -3.3322997 1.3206861
-14.565913 -3.3177025 1.3726903
-13.83532 -3.3887236 1.2630196
-13.702882 -3.3160765 1.2391573
-13.425953 -3.255127 1.2226871
-13.311819 -3.2843268 1.2432008
-12.622595 -3.2921786 1.2732443
-12.454887 -3.2750633 1.3737611
-12.322927 -3.3619001 1.2890341
-12.171499 -3.3171687 1.3553153
-11.932394 -3.2936749 1.3541726
-7.5121527 -3.2945561 1.3318346
-7.3248506 -3.2917397 1.2813991
-7.1894898 -3.3440886 1.3634664
4.7002177 -3.3340442 1.228273
4.9166412 -3.3565269 1.3287616
5.1061544 -3.3243394 1.3525203
5.2880831 -3.3066862 1.2802547
5.4320421 -3.2321801 1.3327855
19.28252 -3.3512125 1.2583969
19.427711 -3.2469239 1.2632966
-33.502651 -3.1039991 1.3335059
-33.305119 -3.0945468 1.2334135
-33.041294 -3.0926356 1.2778163
-32.696499 -3.1284256 1.3835442
-32.596897 -3.0470467 1.3665812
-32.224297 -3.1753807 1.3111535
-31.494022 -3.0570405 1.2777433
-27.291477 -3.1215014 1.2046988
-27.194172 -3.1359501 1.2084563
-26.950678 -3.0481362 1.2373707
-26.05307 -3.1034913 1.263027
-25.959724 -3.165864 1.2936018
-25.427973 -3.1409473 1.3427143
-14.516681 -3.1080472 1.35507
-14.32927 -3.0149012 1.3934069
-13.666128 -3.0688403 1.2728933
-13.587468 -3.1282296 1.2331694
-12.932374 -3.1411819 1.2553582
-12.638475 -3.0983181 1.3867279
-12.546215 -3.1788349 1.3862631
-11.645777 -3.0781834 1.2992682
-7.4987783 -3.095912 1.2571959
-7.3343625 -3.1914535 1.3477805
4.9964781 -3.1381781 1.3506317
5.1192741 -3.1061337 1.2575225
5.2680635 -3.1443143 1.2867658
5.4844174 -3.1196327 1.2488985
5.7138658 -3.037128 1.2707715
5.8078842 -3.0017719 1.3154517
-33.207733 -2.8978009 1.3192333
-32.661259 -2.9868231 1.382344
-31.22962 -2.8233309 1.3612864
-31.06809 -2.9170449 1.3405066
-26.930008 -2.9416685 1.2547538
-26.679577 -2.9144349 1.2757034
-26.577316 -2.9568205 1.2765732
-26.10239 -2.9992127 1.3060162
-14.44183 -2.8811591 1.3098015
-14.384395 -2.9076729 1.3367776
-13.111787 -2.9982142 1.2824193
-12.718702 -2.9412215 1.2978189
-7.6711769 -2.8332136 1.3088164
-7.5336766 -2.9130862 1.3358178
5.3274326 -2.9212091 1.2689919
5.5358348 -2.9395542 1.3067583
5.7305317 -2.9087327 1.2580559
5.9407187 -2.899334 1.3032898
6.0591068 -2.8228455 1.2878969
-31.328197 -2.6819601 1.3898799
-21.743933 -2.7803335 1.3456917
-14.33567 -2.700357 1.3630304
-12.572748 -2.6833868 1.2487652
-7.6831656 -2.6707525 1.2738168
-7.4357615 -2.6465826 1.3551176
-7.3178024 -2.7256105 1.3784062
5.4975395 -2.7910662 1.3080603
5.6736965 -2.6949782 1.2875298
5.9062347 -2.7257679 1.2471334
6.112792 -2.6653185 1.2515724
6.3007531 -2.6795132 1.3163364
-85.375252 -2.4764094 1.2566334
-32.909752 -2.5290413 1.2749727
-21.859028 -2.4251492 1.3066484
-21.638527 -2.5780132 1.3926529
-7.7063103 -2.587981 1.2714173
5.9031453 -2.5264771 1.2944413
6.1169963 -2.5336268 1.3368615
6.3329697 -2.4955797 1.3005809
6.4825454 -2.5525885 1.3314223
6.6364889 -2.4620764 1.3216949
-22.114393 -2.254503 1.3497562
-21.939537 -2.3287225 1.3324764
-21.744251 -2.3293893 1.2007564
-8.2752104 -2.223202 1.3850507
6.1501966 -2.340796 1.2735748
6.3437176 -2.3299661 1.2600074
6.5477729 -2.3488131 1.3072121
6.717988 -2.2864213 1.2871647
6.9393163 -2.2716131 1.3398585
-85.161377 -2.0593567 1.3099103
-22.147701 -2.0833836 1.3111722
-21.839743 -2.0902963 1.3129306
-9.927866 -2.1015272 1.2594187
-8.4205904 -2.0961816 1.386307
-8.3250847 -2.0827506 1.2449772
-8.0677042 -2.0013742 1.2773491
-7.4458027 -2.0117369 1.2353042
-7.1103077 -2.1832447 1.3166155
6.509069 -2.1289346 1.3045454
6.7229095 -2.1493604 1.3687712
6.875289 -2.1514246 1.3216684
7.0875697 -2.0921063 1.3522156
7.2976184 -2.0302167 1.3161197
14.918091 -2.0820827 1.3076706
15.124667 -2.1035419 1.2655385
15.270028 -2.1627121 1.2185605
-22.031685 -1.9962626 1.3247367
-21.988049 -1.8899021 1.3193909
-10.092355 -1.8945518 1.2312517
-9.9890308 -1.8463917 1.221034
-9.7422056 -1.8852596 1.2397892
-9.5454006 -1.8049538 1.324424
-8.4284449 -1.9550462 1.2627934
-8.3725786 -1.9770091 1.2420657
-8.1143837 -1.9102179 1.2519516
-7.6328592 -1.8802352 1.2214999
-7.5018787 -1.981869 1.2309504
6.7393875 -1.9937203 1.2016795
6.8501034 -1.9108778 1.2922268
7.1408377 -1.9761502 1.2957435
7.3449216 -1.866075 1.336069
7.4804001 -1.8991662 1.3237084
14.441353 -1.8821154 1.273774
15.163304 -1.9220128 1.2625217
15.320632 -1.9279897 1.2315905
-20.365108 -1.6135349 1.3229887
-10.256327 -1.7366254 1.3490551
-10.128254 -1.7327847 1.294713
-9.6267462 -1.7872381 1.2971491
-8.0860634 -1.7651013 1.2703792
-7.7965813 -1.6870794 1.282304
6.9848409 -1.7786417 1.3250914
7.1401539 -1.7084913 1.3180704
7.2967534 -1.6954864 1.3627659
7.5410404 -1.7237877 1.3347266
7.6433029 -1.7331824 1.3312688
7.8916483 -1.6311998 1.3694127
14.105705 -1.6362314 1.309675
14.433004 -1.7765718 1.2710725
14.709195 -1.7184739 1.2353595
14.865059 -1.6254807 1.3969752
15.174707 -1.7025871 1.2637682
15.34378 -1.7848623 1.2199345
-85.885132 -1.4625731 1.268319
-20.44618 -1.4590466 1.2750933
-9.0912018 -1.5170207 1.3360063
7.3435631 -1.5608462 1.2957168
7.5005379 -1.4857769 1.3159992
7.697156 -1.5411096 1.286984
7.8558807 -1.5650001 1.343824
13.970874 -1.4285264 1.3598782
14.062999 -1.4973593 1.2505435
14.318509 -1.4955864 1.3156288
14.516742 -1.4815152 1.3195386
14.982001 -1.5819169 1.203765
-85.957375 -1.2678623 1.2699894
-85.624039 -1.2350559 1.3208805
-20.462948 -1.280478 1.3386106
-20.386143 -1.241498 1.2827438
7.7491202 -1.3952208 1.3844426
13.975933 -1.2596745 1.3600646
14.079586 -1.2830093 1.2703689
14.333347 -1.2193838 1.2605339
14.462252 -1.3228869 1.2145808
-20.823009 -1.0978131 1.3472115
-20.721012 -1.0760593 1.3041687
-20.49474 -1.1426343 1.3242836
-20.321127 -1.0877954 1.3204436
-20.184038 -1.0331649 1.3379782
13.939806 -1.118331 1.3744578
14.11961 -1.1359651 1.2730138
14.33446 -1.0541159 1.3134189
14.440717 -1.008826 1.3205835
-21.330618 -0.88508558 1.2520503
-20.867102 -0.87721962 1.244103
